 0.164560707332 0.0533081389601 0.0567216439022 1746080592.79
 0.152259703413 0.0400290494466 0.0426345197714 1746080592.81
 0.133957592157 0.0203740039899 0.0212625260857 1746080592.82
   0.111987365761 -0.00281572720914 -0.00443281061967 1746080592.84
 0.0890842688547 -0.0263322438278 -0.0310088938289 1746080592.86
 0.0679546700827 -0.0472258445167 -0.0550638729905 1746080592.89
 0.0508700835465 -0.0633493850428 -0.0737392473992 1746080592.91
 0.0393627168441 -0.0737030023217 -0.0851247366199 1746080592.92
 0.0340705782871 -0.0785087995351 -0.0885030077927 1746080592.94
 0.0347408139443 -0.0790078256114 -0.0843983601074 1746080592.96
0.0403628135034 -0.077034879431  -0.07442576124 1746080592.99
 0.0493800834858 -0.0744772634525 -0.0609692613726 1746080593
 0.0599279228363 -0.0727508406652 -0.0467463863924 1746080593.02
  0.070059491162  -0.072423999159 -0.0343330186251 1746080593.04
 0.0779455138634 -0.0730865385592 -0.0257285169689 1746080593.05
 0.0820502102519 -0.0735017801902 -0.0220327517559 1746080593.09
 0.0812899493151 -0.0720083332644 -0.0232870604525 1746080593.1
  0.075171601052 -0.0670695591999 -0.0285033136857 1746080593.12
 0.0638919174923  -0.057822248709 -0.0358736952142 1746080593.14
 0.0483678943731 -0.0444669775283 -0.0431233129638 1746080593.15
 0.0301689406349 -0.0283782023386 -0.0479433445844 1746080593.19
 0.0113370254389 -0.0118863261347   -0.04842829863 1746080593.2
-0.00589321534922  0.00222330563925  -0.0434394811637 1746080593.22
-0.0194342570026  0.0113667492177 -0.0328279175993 1746080593.24
-0.0276837256062   0.013799471084 -0.0174721922058 1746080593.25
 -0.0297914633263  0.00906793626095 0.000882305916775 1746080593.29
-0.0257959208151 -0.0018392792378   0.019959346941 1746080593.3
-0.0165955554283 -0.0166715979259  0.0374018309391 1746080593.32
-0.00375656458078  -0.0323730487694   0.0512438078155 1746080593.34
 0.0108042666104 -0.0456977052972  0.0602988432449 1746080593.35
 0.0251929143316 -0.0538400962507  0.0643704103379 1746080593.39
 0.0378844896365 -0.0549483327997  0.0642280981695 1746080593.4
 0.0479647256627 -0.0484274657807  0.0613506687607 1746080593.42
 0.0552130332332 -0.0349937505238  0.0574979556869 1746080593.44
 0.0600113871547 -0.0164926984768  0.0542201873339 1746080593.45
 0.063105402243 0.0044652659022 0.0524312354596 1746080593.48
0.0652802973093 0.0249730725981  0.052155996555 1746080593.51
0.0670365998766 0.0423127764629 0.0525164356558 1746080593.52
 0.068353186929 0.0543786226254 0.0519589432128 1746080593.54
  0.06860722992 0.0599738933411  0.048664636586 1746080593.55
0.0666845862939 0.0589416141451 0.0410398903199 1746080593.58
0.0612670781933 0.0521165626959   0.02816717049 1746080593.6
0.0512353662486 0.0411142161103 0.0101091443364 1746080593.62
 0.0360898817162  0.0279981471271 -0.0120026452738 1746080593.64
 0.0162782451474  0.0148874789582 -0.0361103117487 1746080593.65
-0.00666835200869  0.00357672517208  -0.0595656048742 1746080593.67
 -0.0302466002659 -0.00476151494511  -0.0795808744265 1746080593.7
-0.0513386962634 -0.0097364556623 -0.0936975918146 1746080593.72
-0.0667526244393 -0.0117351622923   -0.10017980684 1746080593.74
-0.0738322951945 -0.0117624917918 -0.0982638287263 1746080593.75
 -0.071001304883 -0.0111643249944 -0.0882298502998 1746080593.77
 -0.058113514821 -0.0112945625336 -0.0712972615178 1746080593.8
 -0.036524667254 -0.0131931028832 -0.0493762879713 1746080593.82
-0.00886246228066   -0.017335689324  -0.0247303257184 1746080593.84
   0.021457357748  -0.0235013089298 0.000386141562103 1746080593.85
 0.0508617668008 -0.0307826039707  0.0240506889112 1746080593.87
 0.0762571658601 -0.0377412686427  0.0449068342985 1746080593.9
 0.0955325079705 -0.0426844025601   0.062280310355 1746080593.92
  0.107825919654 -0.0440117082919  0.0761755444007 1746080593.94
  0.113514040211 -0.0405629796046  0.0871743838079 1746080593.95
   0.11395352616 -0.0318882556673  0.0962754667382 1746080593.97
  0.111062705393 -0.0183752308513   0.104717380238 1746080594
   0.106862709021 -0.00120011083714    0.113821618721 1746080594.02
 0.103095130144 0.0178882143925   0.12487587674 1746080594.04
 0.101000905157 0.0368977834363  0.139060403574 1746080594.05
 0.101293597989 0.0539552258291   0.15740607324 1746080594.07
  0.10430390047 0.0676123936025  0.180766159658 1746080594.1
 0.110225143313 0.0770307308239  0.209784873715 1746080594.12
  0.11936337379 0.0820145644639  0.244852275836 1746080594.14
 0.132296547106 0.0829085974796  0.286044034264 1746080594.15
 0.149875396517 0.0804098949463  0.333052816193 1746080594.17
 0.173046439737 0.0753593600688  0.385124066846 1746080594.2
 0.202532892681 0.0685688706499  0.441012016139 1746080594.22
 0.238457363838 0.0607138929588  0.498972423652 1746080594.24
 0.280017787617 0.0522899880194  0.556807368138 1746080594.25
 0.325326314767 0.0436086709619  0.611973903454 1746080594.27
 0.371488104105 0.0348025187338  0.661761355832 1746080594.3
 0.414939971544 0.0258221971937  0.703530707566 1746080594.32
 0.452002018988 0.0164318803342  0.734995257903 1746080594.34
  0.479536586041 0.00623163469934    0.75450797051 1746080594.35
    0.4955738593 -0.0052572020242   0.761311440019 1746080594.37
 0.499761170842 -0.018422147265  0.755704008751 1746080594.39
  0.493524021143 -0.0333180057752   0.739081797436 1746080594.42
 0.479884496884 -0.049408723082   0.71383201164 1746080594.44
  0.46295496987 -0.065380926928  0.683077074966 1746080594.45
 0.447196285237 -0.079125273371  0.650298092784 1746080594.47
  0.436583915215 -0.0879553275093    0.61889278002 1746080594.49
  0.433849891728 -0.0890752281134   0.591739538134 1746080594.52
  0.439956915077 -0.0802305624492   0.570841171456 1746080594.54
  0.453916433316 -0.0604039863207   0.557108924683 1746080594.55
  0.472994039447 -0.0303727690382   0.550323549079 1746080594.57
  0.493266610069 0.00705125174549   0.549279180539 1746080594.59
 0.510421527734 0.0472213073859  0.552082103935 1746080594.62
 0.520634598244 0.0843150886816  0.556545194135 1746080594.64
0.521342657851 0.112352970111 0.560596824742 1746080594.65
0.511745451949 0.126367630338 0.562617087002 1746080594.67
0.492926082654 0.123458171126 0.561627800367 1746080594.69
 0.46755886883 0.103470304983 0.557294411375 1746080594.72
 0.439261707309 0.0691226342908  0.549741217891 1746080594.74
  0.41172918248 0.0255290788112  0.539227272007 1746080594.75
   0.38783537649 -0.0207850943903   0.525768236204 1746080594.77
  0.368907372419 -0.0631516337668   0.508808913195 1746080594.78
  0.354335480058 -0.0960224126897   0.487044536943 1746080594.82
 0.341610355237 -0.115944460572  0.458455182777 1746080594.84
 0.326779238674 -0.122041583396  0.420564503939 1746080594.85
 0.305219238555 -0.115922476678  0.370876059512 1746080594.87
 0.272558650027 -0.101073971525  0.307394248924 1746080594.88
  0.225552336348 -0.0819149283425   0.229114996624 1746080594.91
  0.162737024351 -0.0627540156523   0.136379057723 1746080594.94
0.0847491692034 -0.046899896201 0.0310148817054 1746080594.95
-0.00573386499004  -0.0361176878222  -0.0837522104746 1746080594.97
 -0.104389044171 -0.0305273750618  -0.203597095968 1746080594.98
 -0.205877293403 -0.0289240021607  -0.323533645557 1746080595.01
 -0.304574491317 -0.0293953702039  -0.438416091965 1746080595.04
 -0.395273500432 -0.0300466528918  -0.543431485852 1746080595.05
 -0.473755993795 -0.0296288461183  -0.634533153031 1746080595.07
 -0.537174840689 -0.0279104243408  -0.708787869081 1746080595.08
 -0.584229140502 -0.0257144873764  -0.764624009205 1746080595.11
 -0.615145846753 -0.0246411781081  -0.801971642563 1746080595.14
 -0.631501711027 -0.0265783400925  -0.822282741605 1746080595.15
 -0.635928673015 -0.0331497548307  -0.828417391372 1746080595.17
 -0.63174777614 -0.045250601184  -0.82438533099 1746080595.18
  -0.6225738194 -0.062779747848 -0.814943258936 1746080595.21
-0.611927731313 -0.084615086605 -0.805066999341 1746080595.24
-0.602888615016 -0.108812420491 -0.799342718767 1746080595.25
-0.597814043289 -0.132958469009  -0.80134931494 1746080595.27
-0.598154300183 -0.154584610688 -0.813126969006 1746080595.28
-0.604380314208 -0.171551073176 -0.834833737128 1746080595.3
 -0.61603287985 -0.182334538729 -0.864674264545 1746080595.34
-0.631882780686 -0.186184295453 -0.899141412663 1746080595.35
-0.650171900668 -0.183142013649 -0.933551427794 1746080595.37
-0.668890200933 -0.173940934073 -0.962791048711 1746080595.39
-0.686037296466 -0.159810521888 -0.982146483357 1746080595.4
-0.699822888299 -0.142216115712 -0.988062398688 1746080595.44
-0.708777799938 -0.122565336403 -0.978691321245 1746080595.45
-0.711773900933 -0.101917890308 -0.954139302174 1746080595.47
  -0.70797943396 -0.0807424090079  -0.916381424534 1746080595.49
  -0.69679577953 -0.0587680145779  -0.868891606895 1746080595.5
 -0.677823919902 -0.0349726784234  -0.816084955391 1746080595.54
  -0.650892407737 -0.00773152391997   -0.762694872434 1746080595.55
-0.616150425126  0.024881522434  -0.71320001366 1746080595.57
 -0.57420068212 0.0646783146263  -0.67138562627 1746080595.59
-0.526227206216  0.112894346212  -0.64008063227 1746080595.61
-0.474067813399  0.169762503715 -0.621066562866 1746080595.64
-0.420190973935  0.234206275858 -0.615116930635 1746080595.66
-0.367558737083  0.303722384583 -0.622104624901 1746080595.67
-0.319384759307  0.374496627517 -0.641115704713 1746080595.69
-0.278820850749  0.441761263491 -0.670529382057 1746080595.71
-0.248619947115  0.500361859466 -0.708058113242 1746080595.74
-0.230825878702  0.545461246444 -0.750776699835 1746080595.76
 -0.22653342189  0.573274012557 -0.795193190554 1746080595.77
-0.235750396576  0.581703690119 -0.837418056465 1746080595.79
-0.257380109098  0.570753825124  -0.87346752498 1746080595.81
-0.289327963538  0.542609310021 -0.899695196801 1746080595.84
-0.328720318015  0.501336982382 -0.913294249845 1746080595.86
-0.372207253258  0.452228343087 -0.912767468466 1746080595.87
-0.416306146635  0.400887802006 -0.898240912676 1746080595.89
-0.457733414956  0.352236836411 -0.871509947303 1746080595.91
-0.493671251029  0.309637787814 -0.835754283466 1746080595.94
-0.521926858686  0.274328159761 -0.794932130286 1746080595.96
-0.540962656565  0.245297247985  -0.75294512197 1746080595.97
-0.549802616779  0.219644701702 -0.712733939778 1746080595.99
-0.547845792319  0.193356742515 -0.675499242048 1746080596.01
-0.534637551628  0.162343985771 -0.640230802299 1746080596.04
-0.509659163321  0.123525343394 -0.603669303249 1746080596.06
-0.472196142084  0.075728314608 -0.560733404749 1746080596.07
-0.421334162549 0.0202105950973 -0.505342706239 1746080596.09
 -0.356107240162 -0.0393156822823  -0.431480897509 1746080596.11
 -0.275787501398 -0.0971743417538   -0.33429360239 1746080596.14
-0.180265432337 -0.146643648045  -0.21101253117 1746080596.16
-0.0704348209792  -0.181132598243 -0.0615392627543 1746080596.17
0.0515206556634 -0.195397290532  0.111405024103 1746080596.19
 0.182034279365 -0.186574956636  0.302572531667 1746080596.21
 0.316317316984 -0.154848351342  0.504854932652 1746080596.23
 0.448780296705 -0.103618659475  0.710194682319 1746080596.26
  0.573657728074 -0.0391486227264   0.910581488615 1746080596.28
 0.685724383051 0.0302737232025    1.0989685818 1746080596.29
 0.780960022383 0.0955195474821   1.26996340477 1746080596.31
0.857022977385 0.147960933114  1.42019031077 1746080596.34
0.913432617587   0.1807509011  1.54828509712 1746080596.36
0.951426946607 0.189832941468  1.65455490128 1746080596.38
0.973536782167 0.174517299772  1.74040791777 1746080596.39
0.982981980162 0.137533543602  1.80770638993 1746080596.41
 0.983031163254 0.0845533817377   1.85820614892 1746080596.44
 0.976465781561 0.0232605046729   1.89321060378 1746080596.46
  0.965253706578 -0.0378855755721    1.91349679531 1746080596.48
  0.950477758317 -0.0909952386904    1.91948871482 1746080596.5
 0.932497003219 -0.129985466602   1.91158388293 1746080596.51
 0.911260910692 -0.151499464759     1.890501868 1746080596.54
0.886663274652 -0.15534626541  1.85752626747 1746080596.56
0.858822786888 -0.14437393272  1.81455267524 1746080596.58
  0.82820996163 -0.123788023476   1.76392262043 1746080596.6
 0.795595455796 -0.100030698424   1.70809707516 1746080596.61
  0.761854962632 -0.0794261240796    1.64927866831 1746080596.64
  0.727711786155 -0.0668553349597    1.58911005574 1746080596.66
  0.693516610091 -0.0647330292871    1.52855131475 1746080596.68
  0.659151075015 -0.0725118166606    1.46798138179 1746080596.7
  0.624102938708 -0.0868392981071    1.40749676439 1746080596.71
 0.587707494924 -0.102356543642   1.34731605263 1746080596.74
 0.549497313642 -0.112981810563   1.28815847292 1746080596.77
 0.509564732188 -0.113405569195   1.23146014735 1746080596.78
 0.468829321456 -0.100463107228   1.17932610904 1746080596.8
  0.429118925543 -0.0740667534533     1.1341825695 1746080596.81
  0.393012913257 -0.0374698241768    1.09817568695 1746080596.84
  0.363449433007 0.00322104270109    1.07243833922 1746080596.87
0.343152521704  0.04020252587  1.05639552388 1746080596.88
 0.333979219108 0.0655681376726   1.04728977203 1746080596.9
   0.3363136615 0.0730067933715   1.04007687718 1746080596.91
 0.348639833259 0.0592452213668   1.02777380799 1746080596.93
 0.367405423644 0.0249187007852   1.00224702882 1746080596.97
  0.387246924935 -0.0253342898055   0.955329847137 1746080596.98
  0.401584552028 -0.0836019062531   0.880075099262 1746080597
 0.403522490752 -0.140129035091  0.771905580362 1746080597.02
  0.38691795663 -0.185168166873  0.629431674634 1746080597.04
 0.347428367078 -0.210869009016  0.454764274014 1746080597.07
 0.283326961095 -0.212803662424  0.253250211797 1746080597.09
 0.195904974426 -0.190796115244 0.0326765546094 1746080597.1
0.0893525676947 -0.148876924381 -0.197897387754 1746080597.12
-0.0298832910979 -0.0943797717301  -0.429442901753 1746080597.14
-0.154152496162 -0.036386695802 -0.654138181181 1746080597.17
-0.275862280933 0.0161332659343 -0.866194205057 1746080597.19
-0.38868909296 0.056091687176 -1.06219481367 1746080597.2
-0.488491218566 0.0795889063764  -1.24093080877 1746080597.22
-0.573732594522 0.0865088743237  -1.40281968987 1746080597.24
-0.645334224249 0.0803075632839  -1.54908505323 1746080597.27
-0.705998146144 0.0670747405405  -1.68090746135 1746080597.29
-0.759170591521 0.0540969008677   -1.7987482985 1746080597.3
-0.807895886148 0.0482421341497  -1.90199537455 1746080597.32
-0.853838283903 0.0545086919093  -1.98899579943 1746080597.34
-0.896707233959 0.0750270292482  -2.05744562186 1746080597.37
-0.934222284507  0.108694720209  -2.10501934217 1746080597.39
-0.962622044264  0.151481688564  -2.13006785025 1746080597.4
-0.977590616715  0.197302732168  -2.13220433675 1746080597.42
-0.975376932918  0.239246516458   -2.1126340035 1746080597.44
-0.95384088631 0.270896030977 -2.07415230318 1746080597.47
-0.913184557608   0.28748064062  -2.02081949348 1746080597.48
-0.85620975437 0.286655326838 -1.95739749661 1746080597.5
-0.788061041881  0.268790209587  -1.88869052732 1746080597.52
-0.715532697845  0.236752283915  -1.81894864242 1746080597.54
-0.646105833016  0.195253591204  -1.75146638574 1746080597.56
-0.586918136237  0.149912719608  -1.68844437122 1746080597.59
-0.543851724279  0.106220920823  -1.63110142786 1746080597.6
-0.520869016207 0.0686146189826  -1.57995581422 1746080597.62
-0.519655319891 0.0398297711884  -1.53515680519 1746080597.64
-0.539562301869 0.0206519073971  -1.49675024959 1746080597.66
-0.577803839772 0.0100874349233  -1.46479805779 1746080597.68
-0.629839231224 0.0058844074312  -1.43932763233 1746080597.7
-0.689882126376 0.0052485544791  -1.42014419673 1746080597.72
-0.751484517342 0.0055573746714  -1.40657862351 1746080597.74
 -0.808152036829 0.00488738966279   -1.39725454485 1746080597.76
 -0.853944474688 0.00223674768434   -1.38994227013 1746080597.79
  -0.884006497489 -0.00257223529866    -1.38153572107 1746080597.8
  -0.894965950898 -0.00922166196327    -1.36815818708 1746080597.82
 -0.885139723766 -0.0172980943227   -1.34538338545 1746080597.84
 -0.854506432992 -0.0265917656912   -1.30855062067 1746080597.86
   -0.8044428248 -0.0371726193168   -1.25315095267 1746080597.88
 -0.737271483955 -0.0492158444604   -1.17525877759 1746080597.9
 -0.655717856936 -0.0626557640061   -1.07197623052 1746080597.92
 -0.562406043855 -0.0768249809781   -0.94184541294 1746080597.94
 -0.459518922622 -0.0902549179249  -0.785168188585 1746080597.96
-0.348704213458 -0.100764682859 -0.604162604319 1746080597.98
-0.231235739789   -0.1058643167  -0.40289027074 1746080598
-0.108362468488 -0.103383212651 -0.186919906993 1746080598.02
 0.0182773631032 -0.0921475233889  0.0372515716999 1746080598.04
  0.14631714694 -0.072502428096  0.262932037529 1746080598.06
   0.27251534879 -0.0465139060441   0.483979479795 1746080598.08
  0.392866518098 -0.0177741632678   0.695401698906 1746080598.1
  0.502969002675 0.00915630294797    0.89368383487 1746080598.12
 0.598586268137 0.0295433521396   1.07678859178 1746080598.14
 0.676293514278 0.0393315780042   1.24386239654 1746080598.16
 0.734080616969 0.0358747524898   1.39475774424 1746080598.18
 0.771787592664 0.0184085933365   1.52952480387 1746080598.2
  0.791276312585 -0.0118010643928    1.64802351792 1746080598.22
  0.796286197015 -0.0516313202813    1.74976384339 1746080598.24
 0.791975491373 -0.096539543842   1.83400999565 1746080598.26
 0.784206402546 -0.141178864947   1.90010495475 1746080598.28
 0.778683680079 -0.180098065952   1.94790676654 1746080598.3
 0.780092548196 -0.208437403115    1.9781968506 1746080598.32
 0.791393310879 -0.222542000362   1.99292992247 1746080598.34
  0.81340926026 -0.220426340093   1.99523848963 1746080598.35
 0.844791311857 -0.202038724489   1.98916606797 1746080598.38
 0.882366274117 -0.169295860932   1.97916575836 1746080598.4
 0.921793654278 -0.125884379266   1.96945325551 1746080598.42
  0.958389583472 -0.0768541717798    1.96333827717 1746080598.44
  0.987943328028 -0.0280530102534    1.96266889231 1746080598.45
  1.00736049183 0.0145308806687   1.96750412811 1746080598.48
  1.01501500473 0.0454439876125   1.97608365875 1746080598.5
  1.01076672184 0.0603888975052   1.98510154033 1746080598.52
 0.995682898968 0.0567324076563   1.99023145725 1746080598.54
 0.971567755558 0.0338581489676   1.98680806542 1746080598.55
   0.940437745547 -0.00666185126336     1.97054871554 1746080598.58
  0.904075451291 -0.0610917274791    1.93820139714 1746080598.6
 0.863759100069 -0.123764848948   1.88802479279 1746080598.62
 0.820211768268 -0.187538697336   1.82004012794 1746080598.64
 0.773758578645 -0.244479460349   1.73603473397 1746080598.65
  0.72463183415 -0.286761526385   1.63933452553 1746080598.68
0.673329988181 -0.30772176334  1.53438933047 1746080598.71
 0.620922136761 -0.302947121352   1.42622921408 1746080598.72
 0.569198980797 -0.271215368068   1.31985492216 1746080598.74
 0.520603328958 -0.215077303956   1.21962591331 1746080598.75
0.477922144202 -0.14088598103  1.12870753809 1746080598.78
  0.443778076041 -0.0581540920869    1.04863479866 1746080598.81
 0.420010606633 0.0217519567642  0.979043180115 1746080598.82
 0.407075198686 0.0874183210726    0.9176065208 1746080598.84
 0.40360395747 0.129384458155 0.860206027154 1746080598.85
0.406256291514  0.14194401381 0.801330980048 1746080598.87
0.409941021389 0.124350836536 0.734680208459 1746080598.9
 0.408418569365 0.0811330108441  0.653898701937 1746080598.92
 0.395207768069 0.0213972045888  0.553354803868 1746080598.94
  0.364645881397 -0.0427747230846   0.428849518713 1746080598.95
  0.312901714455 -0.0985290174448   0.278155639057 1746080598.97
 0.238734032886 -0.134595381319  0.101309949541 1746080599
 0.143826119624 -0.143308662298 -0.099378393593 1746080599.02
0.0326069290089 -0.121885736713 -0.319593473687 1746080599.04
-0.088425725314  -0.07271460851 -0.553497352264 1746080599.05
  -0.211757614186 -0.00263169846943   -0.794344914178 1746080599.07
-0.330080521526 0.0786206752802  -1.03512465704 1746080599.1
-0.43743979668 0.160400707758 -1.26912936192 1746080599.12
-0.530076835066  0.233202371096  -1.49038940811 1746080599.14
-0.606801589561  0.290301309177  -1.69394125114 1746080599.15
-0.668831288756  0.328696315092  -1.87594040069 1746080599.17
-0.719145960102  0.349194752231  -2.03365035292 1746080599.2
-0.761514298491  0.355677408553  -2.16534246336 1746080599.22
-0.799412689814  0.353750041295  -2.27013205621 1746080599.24
-0.835080370451  0.349111681547  -2.34776385374 1746080599.25
-0.868919257585   0.34602123519   -2.3983551462 1746080599.27
-0.899364430378  0.346214981046  -2.42211353392 1746080599.3
-0.923239365096  0.348522650186  -2.41906729959 1746080599.32
-0.936496620489  0.349267291257  -2.38887367454 1746080599.34
-0.935159141793   0.34334679792   -2.3307893949 1746080599.35
-0.916241372977  0.325726131928  -2.24388082241 1746080599.37
-0.878449683957  0.292962739675  -2.12750452072 1746080599.4
  -0.822528346 0.244373922783 -1.98200689026 1746080599.42
-0.751208109178  0.182540385488    -1.809496981 1746080599.44
-0.668802727798  0.113004643256   -1.6144757704 1746080599.45
-0.580562668197 0.0432254932414  -1.40409027534 1746080599.47
 -0.491924341402 -0.0189606221068   -1.18783711799 1746080599.5
 -0.407790136288 -0.0669924575476  -0.976660620474 1746080599.52
 -0.331950186953 -0.0969401424418  -0.781547835821 1746080599.54
-0.266722484127 -0.108228657416 -0.611875266612 1746080599.55
-0.212849751687 -0.103556417491 -0.473862604254 1746080599.57
  -0.16965078763 -0.0880464319058  -0.369500203117 1746080599.6
 -0.135382039436 -0.0678657971922  -0.296226392782 1746080599.62
 -0.107727465823 -0.0486816297783  -0.247458315368 1746080599.64
-0.0843104814994 -0.0343524741552  -0.213874187153 1746080599.65
 -0.063119928457 -0.0261778648651   -0.18516589099 1746080599.67
-0.0427663268479 -0.0228698369751  -0.151879711597 1746080599.7
-0.0225309024053 -0.0212155129027  -0.106965175239 1746080599.72
-0.00222615938052  -0.0172232823183  -0.0467498038822 1746080599.74
 0.0180632240983 -0.0074317585816  0.0287850270706 1746080599.75
 0.0382618818355 0.00996434089316   0.116385776785 1746080599.77
0.0585116725856 0.0344538472339  0.210396358336 1746080599.79
0.0792394582389 0.0631671757157  0.303882727996 1746080599.82
 0.101064794903 0.0914463143805  0.389782460262 1746080599.84
0.124576558056 0.113871709362 0.461899634147 1746080599.86
0.150045632847 0.125487337351 0.515635615449 1746080599.87
0.177159756659 0.122927980639 0.548412697587 1746080599.89
0.204863522837  0.10518693754 0.559796718657 1746080599.92
 0.231363152773 0.0738568421651   0.55135459988 1746080599.94
 0.254317457369 0.0328061937699  0.526298582225 1746080599.95
  0.271192022176 -0.0126128543126   0.488978014498 1746080599.97
  0.279713187245 -0.0566261960885   0.444286549303 1746080599.99
   0.27833127637 -0.0941190587455   0.397057990037 1746080600.02
 0.266595252731 -0.121498643081  0.351525130418 1746080600.04
 0.245355575893 -0.137167056459  0.310909273642 1746080600.05
 0.216745516531 -0.141536212435  0.277191446348 1746080600.07
 0.18393600437  -0.1366277246 0.251089697873 1746080600.09
0.150704835073 -0.12539365995  0.23223324878 1746080600.12
 0.120897229285 -0.110947142444   0.21948947378 1746080600.14
 0.0978736304535 -0.0958945644529   0.211371489815 1746080600.15
 0.0840392670215 -0.0819158688635   0.206439825536 1746080600.17
 0.0805303205593 -0.0696605685077   0.203615689509 1746080600.19
 0.0870992328471 -0.0589376745563   0.202345578768 1746080600.22
   0.10220452543 -0.0491021537182   0.202592629124 1746080600.24
  0.123276578026 -0.0394986088102   0.204671112793 1746080600.25
  0.147106697312 -0.0298241346763   0.208977286083 1746080600.27
  0.170295848079 -0.0203139282649   0.215693530983 1746080600.29
  0.189700761549 -0.0117211231302   0.224547522555 1746080600.32
   0.202824436841 -0.00513511255267    0.234692866484 1746080600.34
   0.208109946757 -0.00173769159451    0.244746471561 1746080600.35
   0.205107546258 -0.00261621498445    0.252979065881 1746080600.37
   0.194495516452 -0.00873044432102    0.257618390136 1746080600.39
  0.177947804211 -0.0210703064968   0.257198149507 1746080600.42
  0.157859144782 -0.0409624942124   0.250875262651 1746080600.44
  0.136960896573 -0.0704092793242   0.238645038423 1746080600.45
 0.117883994103 -0.112298744841  0.221406361195 1746080600.47
 0.102741820607 -0.170331201743  0.200860888587 1746080600.49
0.0928079722527 -0.248568007449  0.179263689776 1746080600.51
0.0883481475252 -0.350615297988  0.159070167661 1746080600.54
0.0886343136515 -0.478578936061   0.14254083237 1746080600.55
0.0921313467054 -0.632031302038  0.131370441885 1746080600.57
0.0968126117238 -0.807279736317  0.126402608696 1746080600.59
 0.100540507898 -0.997197528083  0.127477330247 1746080600.61
 0.10144424273 -1.19176923236 0.133438974557 1746080600.64
0.0982370592688  -1.37933401532  0.142308064301 1746080600.65
0.0904320502335  -1.54832466103  0.151594482341 1746080600.67
0.0784330402728  -1.68914739721  0.158705878718 1746080600.69
0.0634916671698  -1.79577728738  0.161386533723 1746080600.7
0.0475345223715  -1.86668526949  0.158111751904 1746080600.74
0.0328778179518  -1.90486400804  0.148363796536 1746080600.76
0.0218634459752  -1.91694282296   0.13272990545 1746080600.77
0.0164681869226  -1.91161244267  0.112791962636 1746080600.78
0.0179520548501  -1.89774788042 0.0908179811389 1746080600.8
0.0266150139881  -1.88267269947 0.0693095634146 1746080600.84
0.0417177793578  -1.87094077455 0.0504952823305 1746080600.85
0.0615918550031   -1.8638545956 0.0358765908171 1746080600.87
0.0839231573461  -1.85974880772 0.0259248442842 1746080600.88
 0.106153915493  -1.85489949024 0.0199969422597 1746080600.89
  0.12591999944  -1.84480897613 0.0164903783747 1746080600.94
 0.141431856301  -1.82557296404 0.0132063541646 1746080600.96
  0.151718178469   -1.79505191094 0.00784296133838 1746080600.97
   0.156680387883    -1.75362274565 -0.00149005616301 1746080600.98
  0.156948954947   -1.70435998733 -0.0158488228814 1746080601
  0.153582125322   -1.65257590666 -0.0352154362879 1746080601.04
  0.147691981483    -1.6047381269 -0.0584835181328 1746080601.06
 0.140107860941  -1.56688693485 -0.083655032147 1746080601.07
 0.131182377666  -1.54279233935 -0.108185999153 1746080601.08
 0.120808776332  -1.53220111735 -0.129393930988 1746080601.1
 0.108658157497  -1.52958694054 -0.144842701286 1746080601.14
0.0945764210938  -1.52379183538 -0.152644670903 1746080601.16
0.0790218072175  -1.49881653925 -0.151652562537 1746080601.17
0.0633923620125   -1.4357977782 -0.141542511537 1746080601.19
0.0501018634592  -1.31595022716 -0.122807296144 1746080601.2
 0.0423168628279   -1.12401231656 -0.0966831695379 1746080601.24
 0.0433574635277  -0.851575388744 -0.0650278813832 1746080601.26
 0.0558680501106  -0.499633456622 -0.0301572215679 1746080601.27
 0.0809516118814 -0.0797801917261 0.00536037221301 1746080601.29
 0.117504169639  0.386308715691 0.0389511564157 1746080601.3
 0.161965683285  0.869166639358 0.0683143802004 1746080601.34
0.208618258691  1.33531468213 0.091701749204 1746080601.36
0.250427971282  1.75192244523 0.108149368107 1746080601.37
0.280277548004  2.09152593253 0.117604561286 1746080601.39
0.292318459673  2.33592346874 0.120899193553 1746080601.4
0.283123772982  2.47851305614 0.119550422834 1746080601.44
0.252367380002  2.52465334776 0.115412911393 1746080601.46
0.202878943867  2.49005211001 0.110250459466 1746080601.48
0.140086199331  2.39760307905 0.105324991119 1746080601.49
0.0710041809361   2.27339424691  0.101105727823 1746080601.5
0.00302117896787    2.14272020986  0.0971777156137 1746080601.54
-0.0572545926166    2.02683024274  0.0923816701334 1746080601.56
-0.104876308546   1.94087988817 0.0851585522161 1746080601.58
 -0.13704849864   1.89321983111 0.0740186187121 1746080601.59
-0.153205565733   1.88585179073 0.0580216810317 1746080601.61
-0.154739860884   1.91568011712  0.037152920615 1746080601.64
-0.144489724845   1.97611967062 0.0125068907272 1746080601.66
 -0.126113523115    2.05867440922 -0.0137589632614 1746080601.68
 -0.103463968596     2.1542358375 -0.0386870088927 1746080601.69
-0.0800490056987    2.25400887251 -0.0589422840674 1746080601.71
-0.0586328855825    2.35009933713 -0.0713175035346 1746080601.74
-0.0410023994902    2.43585822277 -0.0732404312762 1746080601.76
-0.0279018048681    2.50607211487 -0.0632158589794 1746080601.78
-0.0191238649252    2.55704365989 -0.0411514668051 1746080601.8
 -0.0137295935728     2.58655709249 -0.00853197586976 1746080601.81
-0.0103540020732    2.59369940822   0.031583180272 1746080601.84
-0.00754249268684     2.57851904087   0.0747548369486 1746080601.86
-0.00405873464545     2.54154693029    0.115557035283 1746080601.88
0.000885961935477     2.48326402269     0.14815591469 1746080601.9
0.00751156785564    2.40365059536   0.167036902302 1746080601.91
0.0154625308356   2.30197016224  0.167809816261 1746080601.94
0.0239017313117   2.17690577745  0.147986853965 1746080601.96
0.0316803626307   2.02707853905  0.107601221933 1746080601.98
0.0375545618495   1.85185704223 0.0495268243764 1746080602
 0.0404185653765     1.6522485059 -0.0206163505453 1746080602.01
 0.0395234290657    1.43158914904 -0.0950257654407 1746080602.04
0.0346494411749   1.19575773155 -0.164713053956 1746080602.06
0.0262012369132  0.952735435901 -0.220797833538 1746080602.08
0.0152005770033  0.711509313688 -0.255879547399 1746080602.1
0.00316549700144   0.480516137047  -0.265228858661 1746080602.12
-0.00811396083359    0.265983969094   -0.247559840787 1746080602.14
-0.0168681164018  0.0705950928206  -0.205222126855 1746080602.16
-0.0216516973585  -0.107157611416  -0.143770551692 1746080602.18
-0.0215941597357   -0.27270371817   -0.07099929723 1746080602.2
-0.0165390564281  -0.434215081825 0.00436415317074 1746080602.22
-0.00704003315975   -0.600727111522   0.0740487358521 1746080602.23
0.00578374670733  -0.779943523722   0.131454875089 1746080602.26
0.0204942740845 -0.976186995863  0.172489981793 1746080602.28
0.035619419039 -1.18893732734 0.195909928111 1746080602.3
0.0499040315899  -1.41228598012  0.203154366924 1746080602.32
0.0624685967928  -1.63545867664  0.197754371362 1746080602.34
0.0728461802119   -1.8443525016  0.184454357109 1746080602.36
0.0809054860577  -2.02383773832  0.168221376249 1746080602.38
0.0867008540227  -2.16042045535  0.153316065777 1746080602.4
0.0903089170614  -2.24477614103  0.142576522134 1746080602.42
0.0917114382501  -2.27366456771  0.137024946514 1746080602.44
0.0907659708332  -2.25082581441  0.135852219654 1746080602.47
0.0872771214466  -2.18662642011  0.136773146852 1746080602.49
0.0811501770423  -2.09644787819  0.136681940146 1746080602.5
0.0725832847432  -1.99804942751  0.132482210699 1746080602.52
0.0622389074717  -1.90834760272  0.121927943809 1746080602.54
0.0513323488462  -1.84019173468  0.104300733057 1746080602.57
0.0415865162871  -1.79974667829 0.0807702522952 1746080602.59
0.0350286487406  -1.78501312621 0.0543402463674 1746080602.6
0.0336439584041  -1.78583552976 0.0293641956573 1746080602.62
0.0389449659609  -1.78549604753 0.0107082255013 1746080602.64
 0.0515512419598   -1.76370661763 0.00272307971095 1746080602.67
 0.0708896372911   -1.70053385843 0.00824063367565 1746080602.69
0.0951119242261  -1.58057270323 0.0278180125739 1746080602.71
 0.121284936854  -1.39657318523 0.0594101840276 1746080602.72
 0.145846201683  -1.15175685289 0.0985694039584 1746080602.74
 0.165250853949 -0.860248944449   0.13916548316 1746080602.78
 0.176681011905 -0.545386008407   0.17451465199 1746080602.79
 0.178661307575 -0.236090011189  0.198714227007 1746080602.81
 0.171431136616 0.0380535176658  0.207920377516 1746080602.82
0.156964419659 0.252026885429 0.201291724908 1746080602.84
0.138594460901 0.389798505103 0.181364760994 1746080602.88
0.120284737047 0.446952877763 0.153731416819 1746080602.9
0.105672953908 0.430974435027  0.12604078642 1746080602.91
0.0970878828009  0.359205331521  0.106513018278 1746080602.92
0.0947752768265  0.255064184604  0.102288440473 1746080602.94
0.0965520483078  0.143496978804  0.117995746076 1746080602.98
