 -0.15684997866342   0.21749801225036 0.0810331786646395 0.280131535504427 1746080592.72229
-0.133629889196835  0.233881887516278 0.0373334452554123 0.271940196972743 1746080592.73675
-0.0215311155023746   0.319139654211556 -0.0784915049290919 0.329354860554816 1746080592.76847
  0.121691025225582   0.148944016629508 -0.0556524760249946 0.200225432445274 1746080592.79028
   0.23072027813276 -0.0280130144012888 -0.0763482814798326 0.244633676754507 1746080592.8064
  0.205752655170058 -0.0203600515728003 -0.0801967110348733 0.221766091344883 1746080592.82127
   0.0435350490057028 -0.000753437489747279    -0.128115737515169 0.135312639317381 1746080592.83669
 -0.0152348666394862 -0.00993872831688544  -0.0479354232112048 0.051270696118905 1746080592.86249
 -0.120608309582532 0.00271402577020307 -0.0458318483228487 0.129051495911229 1746080592.8892
 -0.0815048307201734   -0.113991453038628 0.000880689248146847 0.140135164787906 1746080592.90543
 -0.0120226312724428 -0.00232131654053114  -0.0512747776556745 0.0527165533474385 1746080592.92109
 -0.146974488345836  -0.106277662235618 -0.0604945934426961 0.191196332471587 1746080592.93673
 0.0221354371947812 -0.0938371150227032  -0.183481377359459 0.2072698665347 1746080592.95661
 0.0321360474181152 -0.0129728658372006  -0.150909769792865 0.154837913350138 1746080592.98841
0.00128379530511001 -0.0485503226988624 -0.0780612711803751 0.091936630473632 1746080593.00484
 0.0579884846158903 -0.0176665512107127 -0.0452738388706255 0.0756603718323631 1746080593.02074
 -0.125664276778014 -0.0818195649532171  0.0145710796090457 0.15065944387342 1746080593.03514
-0.0545189574524282  0.0205943400103895 -0.0161528751100221 0.0604761021932067 1746080593.05478
 0.0173543744645577  0.0601624944170133 -0.0632764487787537 0.0890202730707084 1746080593.08731
 0.0422559046648334  0.0109987929581975 -0.0438333426114128 0.061869999596495 1746080593.10448
  0.108744223539337 -0.0694342867067511 -0.0192098217271578 0.130443258064332 1746080593.12075
-0.028727408823065 -0.228789083022576 -0.160113779667182 0.28072429707332 1746080593.13673
-0.0456108031684513  -0.194890690885589  -0.106620228720447 0.226783156190961 1746080593.15441
-0.0207811506843952  -0.042848445483707 -0.0226660483773184 0.0527408309868235 1746080593.18675
-0.0166692848805907  0.0176504773902118 -0.0289749374672253 0.0378014736718331 1746080593.20441
-0.0178199725049194   0.148401808095578  0.0301841722265614 0.152485187212121 1746080593.22069
-0.0502835067549886   0.210157565308264  0.0393103339495595 0.219635916150119 1746080593.23665
-0.0999958461985616   0.130968843835984 -0.0251653851732475 0.166689243575039 1746080593.25427
 -0.153477326327736  0.0141776578483851 0.00145105417917542 0.154137604876316 1746080593.28635
   -0.06437461845353 -0.00406751111917683 -0.00920395816552049 0.0651563426970455 1746080593.3044
0.00937568270907083   -0.11731788333835  0.0798788481942521 0.142239303872356 1746080593.32071
0.0509763507675405 -0.055369563252127   0.15010508166822 0.167916385188967 1746080593.33655
0.0910581954765983 -0.042422986014235 0.0940774222467676 0.137629452089351 1746080593.35336
  0.154200522243482 -0.0205815483556852  0.0347593552696756 0.15940393336315 1746080593.38558
   0.06039032153017 -0.0194942542124034 0.00824994388593676 0.0639928000320054 1746080593.40373
 0.0401777001239136 -0.0143010836294115 0.00583819243742453 0.0430447798363396 1746080593.42071
  0.0147281639498023   0.0120592663308413 -0.00534808622953417 0.0197723732538346 1746080593.43678
-2.78217062486205e-05    0.0278847492100607    -0.046538275431801 0.0542528440979963 1746080593.45421
 0.0580174646880018  0.0305880848508573 -0.0282446345830019 0.0714101990362307 1746080593.48466
  0.0707117448482386   0.0275985391819567 -0.00531099020532317 0.0760922916031672 1746080593.50527
 0.0550345797451886   0.036810989639218 0.00815653074561171 0.0667111903637782 1746080593.52092
0.0700182958930849  0.101647238436134 0.0436755574213537 0.130928519267308 1746080593.53671
0.0251922402988412  0.122007842641427 0.0349736766261514 0.129397529706097 1746080593.55291
0.0531614266277944 0.0419774478650728 0.0328219027384007 0.0752696533121836 1746080593.58094
0.0704238799532503  0.043161183765508 0.0547581338189602 0.0991002718010648 1746080593.60463
 0.0962895075132987   0.142897615837929 -0.0250570231295875 0.174124243795729 1746080593.62144
 0.0424290423345743  0.0978447925122009 -0.0525692443637054 0.118900599275848 1746080593.6366
-0.0750737719828744  0.0421279083449813 -0.0710751971955653 0.111635637489326 1746080593.65266
-0.0864512453496602 -0.0643260171803973  -0.112141169300177 0.155522654815338 1746080593.67498
-0.0970484379770954 -0.0523998234000654 -0.0666926144822406 0.128887724910594 1746080593.70486
  -0.114517444474133 -0.00659682067586095 -0.00278366383109646 0.114741064646622 1746080593.72134
-0.134842114127282 0.0438703734114559  0.054344629875608 0.151856327500346 1746080593.73654
-0.157613198575262  0.138046191275958 0.0345643800310747 0.212351990002109 1746080593.75262
 -0.159892800939355  0.0494123614262859 0.00523902349608278 0.167435768643222 1746080593.77278
 -0.176477055449851  -0.039980838884548 0.00888717678683048 0.18116732732312 1746080593.80341
 -0.103772759704488 -0.0709119326608676  0.0204870824575804 0.12734601838302 1746080593.82114
-0.0305587278105211 -0.0474539544543173  0.0188571899829137 0.0595088838141133 1746080593.83658
-0.0190500181762136  0.0368674617174721  0.0288069030050701 0.0505168346865365 1746080593.85247
  0.0792291702582759   0.0465678346275734 -0.00400766340068862 0.0919885101936601 1746080593.87235
 0.179014964308476 0.0771275510115138 -0.115753721869167 0.226702317363461 1746080593.90434
  0.156824743683954 0.00686324054936641 -0.0939830719599727 0.182958798961432 1746080593.92115
  0.115775865071115 -0.0497950915101669  0.0605402061023141 0.139816732283306 1746080593.93655
 0.0152775394101411  -0.111406214714215 0.00531180155860807 0.112574256040962 1746080593.95133
 0.0531951399917249 -0.0820538304019436 -0.0120795861288556 0.0985315705924481 1746080593.97055
  0.112594459587248 0.00871783803622448  0.0158996498304808 0.114045218639372 1746080594.0011
   0.17206421595517 0.00292084264571532  0.0162340575831057 0.172853031097636 1746080594.02059
 0.208775218338646 0.0733470094225918 0.0937621827443382 0.240329404144748 1746080594.03658
0.0918629338003123 0.0782311703168501 0.0662690418361527 0.137660816943044 1746080594.05105
 0.103622961977025  0.128075621169974 0.0337206816268975 0.168161135094733 1746080594.06925
 0.249037699335931  0.199474398302238 0.0799714325361513 0.328945650967538 1746080594.1008
   0.2562141067089  0.130750111837456 0.0400863149474634 0.290427569056751 1746080594.12071
 0.282188040796434 0.0496883128796214 0.0829921273594747 0.298306406248683 1746080594.13666
 0.235723677323492 0.0192116705164495 0.0932264460753767 0.254216267344927 1746080594.1512
 0.269765616974783 0.0112326175498193 0.0903197286194612 0.284705660598273 1746080594.17047
0.491826474143678 0.108304721705945  0.19323263039829 0.53940897551213 1746080594.19945
 0.527421549976134 0.0950412861547145  0.191513301974769 0.569107794961946 1746080594.22056
 0.476997092128676 0.0943425826301002  0.230812664746181 0.538239012896467 1746080594.23665
0.472380059822173 0.114702811956086 0.256163194898309 0.549471781267011 1746080594.25238
0.478212698060802 0.137670263337739 0.212773621569246 0.541214467683345 1746080594.26855
0.800158491245979 0.170338792424971 0.222895228206769 0.847909899738874 1746080594.29733
0.935139320225136 0.035149471404943 0.238745687536266 0.965774578713035 1746080594.32033
  0.839949559388473 -0.0421666225681096   0.179975512789061 0.860049109981155 1746080594.33658
  0.79660672132662 -0.067877522208774   0.17056633331039 0.817485474209114 1746080594.35155
 0.748789411440741 -0.039364371161746  0.152494861681285 0.76517306489573 1746080594.36748
    0.98697344654385 -0.00875100832821737    0.199022310837111 1.0068778697242 1746080594.39311
   1.10891919384252 -0.0363080999688204   0.218372765675359 1.13079915165533 1746080594.42031
  0.880926837176756 -0.0155083722039737   0.168594282946407 0.897048847225653 1746080594.43657
  0.66444414838153 0.0176342015644602  0.170060838879415 0.686088682535751 1746080594.45141
  0.60854636745303 0.0371284054997898  0.144782548463733 0.626633215026852 1746080594.46893
   0.723912169931521 -0.00631496293643829    0.115851260735189 0.733150887025164 1746080594.49076
  0.920975328510244 0.00338743786896541   0.147124325657522 0.932658886013557 1746080594.52044
  0.723311472652889 -0.0660392752542132   0.137194265037516 0.739163675180658 1746080594.53668
 0.602242502786607 -0.104657476694638  0.156061052061145 0.630875797254259 1746080594.55152
 0.540524702798842 -0.123577105690213   0.05142115434777 0.556850420221628 1746080594.56733
  0.673750324424467  -0.111061933466669 -0.0348853881919203 0.683733312803121 1746080594.58589
    0.993042970199985    0.0148019502151124 -0.000322477864204414 0.993153332766774 1746080594.61894
 0.828959381854032 0.0715973535713599 0.0336815532842829 0.832727016995295 1746080594.63661
0.682715424641491 0.199437799696643 0.114147957906763 0.720350986176554 1746080594.65141
 0.640966356278444  0.230665954046523 0.0320060544153439 0.681959705375835 1746080594.66718
   0.752841361761737     0.26673062424697 0.000919047860239235 0.798696554731154 1746080594.68538
  1.01975516528908  0.298209988187277 0.0281947371297713 1.06283805793274 1746080594.71843
 0.769012252018836   0.16397034056093 0.0782189072755446 0.79017992495009 1746080594.73584
  0.547022605194758 -0.0314904316257088   0.224999325783967 0.592325986667201 1746080594.7513
 0.402126459164165 -0.127804056381291  0.122536173816607 0.439379881060836 1746080594.76673
 0.452379126967146 -0.108701968194283  0.125950447221797 0.482002601196549 1746080594.78456
 0.676507663022699  -0.18831062159306 0.0596125447260354 0.704753264498939 1746080594.81698
 0.620112428037572  -0.14370889178815 0.0605563623002186 0.6394206299461 1746080594.8354
  0.53772311025808 -0.105670489821831 0.0747343291267232 0.5530801168681 1746080594.85091
    0.4186261520075 -0.0517614896391349  0.0647719140306882 0.426758137358232 1746080594.8658
  0.407797636752351 -0.0230056912098473  0.0500999055684252 0.411507199094755 1746080594.88324
 0.503381613228136 -0.049197316256595 0.0146544522336974 0.505992270131948 1746080594.91479
  0.283659263382778  0.0115447955327257 -0.0406457071101282 0.286789005216789 1746080594.93671
 0.0482146585078397   0.036880180892523 -0.0134581928266411 0.0621765550014784 1746080594.95081
 -0.160224604727466   0.071196674751573 -0.0391485069628194 0.179648256471283 1746080594.96642
 -0.392798531046604  0.0384882598508148 -0.0634153133727604 0.399741834324204 1746080594.98259
 -0.527987333341088 -0.0674341616466037 -0.0786056057979211 0.538049097748961 1746080595.01366
 -0.594840792951669 -0.0927675077250857 -0.0953985080308308 0.609542660347413 1746080595.03677
 -0.542774118811425  -0.145588008610777 -0.0332688450775004 0.562944427413187 1746080595.05118
 -0.653521157735213  -0.071102432568835 -0.0546792604872737 0.659647846242383 1746080595.0667
 -0.874787021050282 -0.0243486288244421  -0.129063085428649 0.884591695611043 1746080595.08266
 -1.16147349111694 0.0171935493002549 -0.158577424548792 1.17237497767627 1746080595.11339
 -1.18418084587503  0.182699594964066 -0.128544593788842 1.2050672721179 1746080595.13677
 -0.973975841368337  0.0689579332353167 -0.0880295735933449 0.980374082660426 1746080595.15268
  -0.881640042540874 -0.00791129941812051  -0.0823643596757583 0.885514336989953 1746080595.1669
  -0.98681456364789 -0.0111840674731278  -0.120671008796112 0.994228122091047 1746080595.18278
  -1.23794116244213 -0.0848796887179944  -0.161517088824372 1.25131556899438 1746080595.20937
  -1.33859041887374 -0.0109456123587688  -0.163883553497185 1.34862965080757 1746080595.23664
-0.994779028913925 -0.179507534708373 -0.115831726476377 1.017460200815 1746080595.25275
-0.831712343212127 -0.189171517240214 -0.109197836380423 0.859915956507691 1746080595.26698
-0.898524177783862 -0.138777392375088 -0.127323718837102 0.918050212175294 1746080595.2834
 -1.01936770114095 -0.114775483286879 -0.102475310029313 1.03091469620853 1746080595.3048
  -1.35708495038813 -0.0810295508578451  -0.154478533025354 1.36825033084149 1746080595.33666
 -1.06951226144044 -0.192967285552559 -0.173936211160585 1.1006119462453 1746080595.35298
-0.946452142201151 -0.113865822436928 -0.174872469780792 0.969183916335605 1746080595.36876
 -1.10942286172923 -0.085477860544614  -0.19056029479057 1.1289104378654 1746080595.38526
 -1.27311567670273 -0.133902635570474 -0.170398326739322 1.29142906573863 1746080595.40466
 -1.76688978800719 -0.254420839786459 -0.239197880105543 1.80106777010993 1746080595.4367
 -1.29423683453729 -0.252240643920282 -0.229078448145704 1.33833899357497 1746080595.45359
 -0.915118682185405 0.00314490384840379  -0.142414421283182 0.926139276941861 1746080595.46952
-0.955879970232112  0.100511928989911 -0.100003048364386 0.966338333629783 1746080595.4865
  -1.03923780298781  0.0348433725811357 -0.0895664192465013 1.043672082231 1746080595.50496
  -1.47572922426403 -0.0650597095245577  -0.075545336324929 1.47909317049022 1746080595.53675
  -1.07216345594294 -0.0722448436352177  -0.110214396658821 1.08023192274727 1746080595.55386
 -0.765724814000081  0.0700414365116032 -0.0596889010277018 0.771234762254634 1746080595.57054
-0.804330286794752  0.153827679581856 0.0377549586852058 0.819777776087025 1746080595.58658
  -0.895301822833645    0.114341919673873 -0.00480479605773425 0.902586569049812 1746080595.60676
  -1.07163783535271    0.17921086770777 -0.0606245054215047 1.08820931622625 1746080595.63667
-0.826960788082643  0.223664031969403 -0.196330415217675 0.878883027576833 1746080595.65505
-0.545414983353999  0.411424491353915 -0.247809341659941 0.726744168168417 1746080595.67083
-0.645166661785631  0.422287179047968 -0.223413178471654 0.802795074338845 1746080595.68726
-0.727063250602518  0.423178365630342 -0.260299741477706 0.880600281017232 1746080595.7073
 -0.90094288747567  0.521006632184114 -0.354987312945026 1.0996190202178 1746080595.73652
-0.730405423312902  0.520963157784768 -0.344196011227579 0.960919137242543 1746080595.75637
-0.627705737140627   0.59389974109996 -0.285563722561212 0.910097815930174 1746080595.77285
 -0.71919049741967  0.617924288164516 -0.371692829432211 1.01844045330775 1746080595.78946
-0.772142624015486  0.647000102582693 -0.378866564675228 1.07626820002839 1746080595.80773
-0.973045048210539  0.708488819186434 -0.476692273923824 1.29460750684441 1746080595.83672
-0.946881081499875  0.672907545013605 -0.451624815777566 1.24633595826516 1746080595.85641
-0.848548358066383  0.444688137643573 -0.414048331691564 1.04365601455395 1746080595.8731
-0.989516166055674  0.348127554722175 -0.317623036275199 1.09600156496925 1746080595.88973
  -1.0718422257348  0.280048294588568 -0.241687776348293 1.13388085150349 1746080595.90776
 -1.19979847686222  0.290248479930196 -0.286035635726685 1.26711362950931 1746080595.93564
-0.946839454620177  0.315977078991857  -0.20459582101601 1.01892390159956 1746080595.95633
-0.747149897139262  0.325155133501174 -0.199669637684408 0.838943856196825 1746080595.9728
-0.860002579776974  0.191876909551201 -0.028853165321926 0.881619924225323 1746080595.9896
-0.899920255302781  0.163975323148648 0.0590407389786971 0.91664070461936 1746080596.00749
-0.975875741785565  0.220312469122164 0.0428501241174654 1.00135267543115 1746080596.0352
 -0.790819102678038   0.268540499888057 -0.0239177166709259 0.835512364008681 1746080596.05573
-0.654270872806316   0.20181828741965 -0.131099742688929 0.697128495094586 1746080596.07311
-0.656593635402534 0.0627151119790959 -0.165625134894886 0.680058874385605 1746080596.09053
 -0.662591917720016 -0.0348722327167034 -0.0956681587883178 0.670370433900901 1746080596.10958
-0.586117097843499  -0.12083266338525 -0.049499872933813 0.600486488062573 1746080596.1369
 -0.319379286415639  -0.194103561212169 0.00511854754344731 0.373772016870663 1746080596.15651
-0.0133303312387451  -0.199292389659634  0.0485741855207994 0.20555925132718 1746080596.17342
 0.149064802737372 -0.144059714880474 0.0886805739579708 0.225472306645605 1746080596.18976
  0.259135647390695 -0.0989282947611276   0.166979355101401 0.32375947288538 1746080596.20945
 0.478208270491284 -0.123499847694938  0.218913951265242 0.540239465797806 1746080596.23474
 0.785843694823088 -0.183898522744129  0.206776634042287 0.833141978144502 1746080596.25825
  1.07866385926805 -0.105658726715858  0.131548186051139 1.0917803868341 1746080596.27513
  1.28086480839925 0.0517012608812688  0.193659043292887 1.29645343256959 1746080596.29238
 1.40899768344306 0.161397613725289 0.317769424518946 1.45337574935845 1746080596.30968
 1.91365589526971 0.321476328355378 0.607388768023755 2.03330937899641 1746080596.33687
1.97710294001401 0.24596697806019 0.56150159720181 2.06995648103246 1746080596.35877
 1.72088177672887 0.106445696342636   0.4620274682809 1.78500256503834 1746080596.37566
 1.71532153596826 0.158510986409802 0.358541843564664 1.75954708892825 1746080596.3931
 1.71184262374109 0.126568405143463 0.477142326452972 1.78159746557136 1746080596.41082
 2.18092115891495 0.172814030780922 0.768051482102325 2.3186601453851 1746080596.43679
 2.21025460137972 0.118701560928476 0.774687764821266 2.34509202302401 1746080596.45919
   1.98869229331187 -0.0421710163594218   0.647124040645898 2.09175642847839 1746080596.47679
  1.92870836961043 -0.107109477595605  0.669387465673003 2.04437471966277 1746080596.49532
  1.85028163800874 -0.100350020956235  0.661921153836198 1.96767677237754 1746080596.51289
  2.27091109892038 -0.186151281916792  0.767600898371273 2.40435036093732 1746080596.53692
 2.40114231612154 -0.21087940189158 0.807883358166505 2.5421703453573 1746080596.56252
    1.8453183066482 -0.0966149228122491   0.643249278601671 1.95660515449146 1746080596.57898
  1.66650769141444 -0.123451151803759  0.597873863314768 1.77480737795967 1746080596.59644
  1.50597257342511 -0.150350697473797  0.556278137247928 1.61245281795144 1746080596.61321
 1.76336840435776 -0.14175566607347 0.634153311897225 1.87928529535603 1746080596.63695
     1.8799144094957 -0.00260105858184933    0.726953345103407 2.01557587763208 1746080596.66276
 1.47371078672062 0.133478428350959 0.621649916346037 1.60501981053966 1746080596.67956
 1.38002489128445 0.106030189814376 0.575567473492586 1.49899600341674 1746080596.69686
   1.29002040934085 -0.0175432740707506   0.506872583582683 1.38613860741588 1746080596.71329
  1.50302598521829 -0.197579483271441  0.538745492986512 1.60884165493826 1746080596.73638
   1.6197469417686 -0.132022383917374  0.661081358968487 1.75443399089267 1746080596.76503
  1.24238244163094 -0.114530656719227  0.550073984778034 1.36352953445497 1746080596.78196
  1.09316491795886 -0.166168252236294  0.489938105987507 1.20940513212319 1746080596.79704
 0.980930330546181 -0.215674546808815  0.411800472645647 1.08550423895893 1746080596.81325
 1.10642559089952 -0.13332347493364 0.499298996324901 1.22116838515283 1746080596.83536
 1.15481720156052 0.200725080523407  0.69073803181066 1.36051914928121 1746080596.86674
0.937137961129454 0.183177448041439 0.485819514294362 1.07135528006822 1746080596.8828
  0.90233173357341 0.0643682598617866  0.430522281319923 1.00184592877555 1746080596.89908
0.864173543192311 0.028251587683454 0.379393197580266 0.944210391454345 1746080596.91496
 0.976197777432484 0.0327666024887557  0.435964465075628 1.06962646083175 1746080596.93488
 1.12580012040581 0.139997385501389 0.578388234643937 1.27340414991765 1746080596.96677
0.857599800613265 0.147044506427549 0.497441060441465 1.00227097807707 1746080596.98364
 0.781569024618829 0.0872307797836276  0.419327653784033 0.891232310014235 1746080596.9995
   0.75477067157289 -0.0136409244260122   0.295847758614047 0.810796360230325 1746080597.01574
 0.824842375450298 -0.331183182702912  0.204998628082545 0.91217963272562 1746080597.0369
 0.850270955631407 -0.540393050231772 0.0891218631964075 1.01139905736002 1746080597.06668
  0.425110481400671  -0.384860688903173 -0.0527874333354583 0.575867332271836 1746080597.08585
 0.105927739671183 -0.108693234097239 -0.115594832631001 0.190780162756384 1746080597.10085
 -0.226117284064892 0.00536809105391983  -0.265615323723875 0.348868661176933 1746080597.11665
 -0.406228882273233 -0.0403029503017762  -0.351695737333127 0.538828473871119 1746080597.13648
 -0.673143721749365 -0.0035428672733917  -0.487846625087664 0.831341898167371 1746080597.16878
-0.875265077961451 0.0936570389652274 -0.375393754513242 0.956964507478803 1746080597.18606
 -1.00238388362068  0.156111991846575 -0.302476240124159 1.05860109577708 1746080597.20105
 -1.23528892788694  0.238583063977694 -0.380895467767469 1.31451206580345 1746080597.21679
 -1.50565945372937  0.117037813690101 -0.537194245141867 1.60289921624896 1746080597.23699
 -1.87626183816124 0.0286217009576685 -0.757064508723171 2.02344368774477 1746080597.26783
 -1.70602493523822 0.0892321909630945 -0.667956341577857 1.83429799591362 1746080597.28593
 -1.62742149372672  0.107181091820647 -0.598140501690209 1.73717027503057 1746080597.30266
 -1.62389555989754 0.0210176807404978  -0.72077218991278 1.77679235762379 1746080597.31686
  -2.05314305837204 -0.0848636392485037  -0.867718455057211 2.23059040898473 1746080597.33692
   -2.60263721705951 -0.00655588146713842    -1.04188158850206 2.80344086930056 1746080597.36772
-2.19498038579585 0.181609352549787 -0.90620412434526 2.38162271696052 1746080597.38595
 -2.02477565334219   0.32242541715734 -0.724288792416176 2.1744582890495 1746080597.40286
-2.14137703228469 0.341301932174423 -0.68795014878735 2.27491934154135 1746080597.41913
 -2.32853125569466  0.283415236598506 -0.752958885650128 2.46360083791239 1746080597.43688
  -2.8367562265395  0.285943739792073 -0.836710774032197 2.9713691508324 1746080597.46561
-2.20349398374649 0.360348497551692  -0.7548338476605 2.35690706513191 1746080597.48497
 -1.72826529482523  0.234402769461443 -0.705221030870117 1.88127145569427 1746080597.50251
 -1.60754847228478  0.292435586614724 -0.647759374422569 1.7576469697343 1746080597.51916
-1.70616179834775 0.273017648219556 -0.73355039534805 1.87713156195719 1746080597.53697
  -2.0020358148589  0.288852496791285 -0.934203809666641 2.22807538626411 1746080597.56384
 -1.73750959006512  0.299817462349902 -0.927421772306596 1.99222017609663 1746080597.58502
 -1.42124027560969 0.0844845891710368 -0.736404604892038 1.60292024409473 1746080597.60194
 -1.54033078605414 0.0112923792197685 -0.621821239959214 1.66114662289608 1746080597.61937
   -1.6218470289817 0.00236757556926764  -0.666257885369343 1.75336617985168 1746080597.63694
   -1.8117345992398 -0.0603497964082017  -0.783804677047862 1.9749364870221 1746080597.6632
  -1.55128788689535 -0.0583875620602394  -0.655457754825558 1.68508993344348 1746080597.68495
 -1.26296799970124 0.0287335792444321 -0.490701466896046 1.35524968786548 1746080597.7029
  -1.2629049107071  0.235741588177619 -0.371481187005088 1.33734856420581 1746080597.71938
-1.48369489261073 0.304098005145597 -0.34722775231877 1.55383179368716 1746080597.73712
 -1.87593617028145 0.0792095270412737 -0.555655420776229 1.9581020429953 1746080597.76313
 -1.83186499574922 -0.027106309756245 -0.534947586362457 1.90856832071449 1746080597.78554
  -1.47583168067609 -0.0291098500501209   -0.34685212086823 1.51632217117866 1746080597.80285
  -1.49834428177835 -0.0361071858111186  -0.269286072354989 1.52277848171343 1746080597.8196
   -1.6416511181512 -0.0885160968780354  -0.167881587600794 1.6525851628854 1746080597.83707
 -1.90166847970062 -0.203820150723639 -0.294746484004967 1.93513853518583 1746080597.86202
 -1.72201012704906 -0.203634903058168 -0.262477710928714 1.75376184247959 1746080597.8849
 -1.25111044793183  0.070672730374564 -0.272546950079753 1.28240158598645 1746080597.90285
-0.911358425716362  0.191194604202882 -0.300716645164829 0.978549976996419 1746080597.91953
-0.866637253501957  0.243503535838267 -0.273867405135622 0.94093435303366 1746080597.93699
-0.929088131776785  0.118126166955574 -0.299978840337118 0.983435738916425 1746080597.95884
  -1.0042113385508 -0.199037046067526 -0.258439317028576 1.05586317237011 1746080597.98416
-0.724027691542539  -0.23758862650549 -0.102245031669342 0.768842311573867 1746080598.00351
-0.241973819831387 -0.246213339487487 -0.113395535497116 0.363360544770687 1746080598.02128
 0.0690768128810199 -0.0830906140955281  0.0720001207028559 0.129844805863759 1746080598.03619
 0.348313055990225 -0.134014468744876    0.2097206266158 0.428094153235412 1746080598.05753
 0.622360593463033 -0.134728514807189   0.34697447134931 0.725172920596145 1746080598.08395
 0.859371682663956 0.0836659868383005  0.268393599008649 0.904187375662324 1746080598.10342
 1.00428684860741 0.200174163990845 0.177252510466991 1.03926908098051 1746080598.12004
 1.09618730652677 0.181168793436414 0.220999994382792 1.13282379045587 1746080598.1353
  1.28791205896293 0.0680733186264598  0.407571408342829 1.35257750285501 1746080598.15648
  1.62888470496443 0.0438679741412529  0.616079454877778 1.7420515709774 1746080598.18295
   1.61919587964919 -0.0119234041374694   0.528305423770032 1.70324516292399 1746080598.20303
   1.60944876247573 -0.0645170665333567    0.48260346510515 1.68148561559123 1746080598.21987
  1.66709687756355 -0.159008231657294  0.527437996466608 1.75575808613648 1746080598.23698
  1.87588983687833 -0.160465398921724  0.735732727501527 2.02138924274158 1746080598.25516
   2.3819897788781 0.0826183183728099   1.03136051026785 2.59699934450328 1746080598.28239
 2.08465007623703 0.020243278651326 0.974635211815303 2.30132342941966 1746080598.30304
  1.7204170772785 -0.29399294874741 0.751670857775037 1.90033572090117 1746080598.31988
  1.66770734605042 -0.365915337729772  0.753782420934139 1.86636806781668 1746080598.33711
  1.86117922069605 -0.277626676019287  0.853953348934688 2.06647065910577 1746080598.35486
   2.48054568041125 -0.0320127559647441     1.1040007455793 2.71531753859305 1746080598.38224
  2.1988928225511 -0.10674591371637 0.886458387444227 2.3732536332706 1746080598.40287
  1.86806978651626 -0.197229073553209  0.610781968008507 1.97525660287313 1746080598.41962
  1.85348420995406 -0.125430613681383  0.538023300745091 1.93406453551637 1746080598.43714
    1.96361661206359 -0.00983550845235232    0.498140463047113 2.02584077788048 1746080598.45391
 2.60322189822481 0.140970154087351  0.75955145228367 2.7154291087058 1746080598.48167
  2.32197520105523 0.0657585221868728  0.793293353875471 2.45462978122133 1746080598.50295
  1.93475958295777 0.0844076274210674  0.766994502393558 2.08295459818876 1746080598.51959
  1.88496854778664 0.0997873835906849  0.733872432662417 2.02524879841727 1746080598.53707
  1.8891187425942  0.11630607200587 0.693801155455585 2.01585137580072 1746080598.55352
  2.45464349522033 -0.126964984442608  0.788947016484133 2.5814399452091 1746080598.58125
  2.27019491017244 -0.259199336353535  0.764363494731907 2.40940257703392 1746080598.60321
  1.85976750058316 -0.156021800446657  0.749661877170395 2.01123615931163 1746080598.62094
  1.66997925767792 0.0141312568096856  0.709511420220002 1.8145073350406 1746080598.63715
    1.55114905997722 -0.00391962243289094    0.615426076192156 1.66878040046182 1746080598.65357
 1.93875100228874 -0.28369605926544 0.673869348473392 2.07203735529316 1746080598.68171
  1.79608328158303 -0.356990582830432  0.654398783390595 1.94463240698975 1746080598.70546
  1.36788605840687 -0.228337981929143  0.575305886747249 1.50140846077988 1746080598.72187
  1.21644032869031 -0.184294332284442  0.526651807544413 1.33830250712092 1746080598.73711
  1.10670970102773 -0.230243744226226  0.462993417155536 1.22154879085265 1746080598.75314
  1.31826103525109 -0.380670226208373  0.498385114577987 1.45983207959537 1746080598.77898
  1.28943133518745 -0.273126334060441  0.497357868573822 1.40875690307195 1746080598.8051
   0.928032826642633 0.000186980124103141     0.36644446345855 0.997760746415345 1746080598.82175
0.812647517619709 0.210002198400046 0.349595366146313 0.909238049829252 1746080598.83611
0.711867324332966 0.320692758099337 0.310598613744488 0.84027997203928 1746080598.85192
0.820778992417834 0.288084160212189 0.312879880973216 0.92442655612948 1746080598.87319
0.956483307994266 0.246307019732718 0.344103328010264 1.04591326924798 1746080598.90332
0.741805574754578 0.203396976154693  0.18718831336991 0.791634578140769 1746080598.92138
0.621400082445931  0.10189915470757 0.144430274313007 0.646050775351332 1746080598.93723
  0.48940917840565 0.0123207035498156 0.0223426146719063 0.490073806761831 1746080598.95154
  0.435939859457763  -0.223740860771738 -0.0487662438501491 0.492424288984799 1746080598.97194
 0.414341001090666 -0.469366083226868 -0.125376662871696 0.638515695078351 1746080599.00306
0.0524221256816635   -0.2190566065708 -0.208904024515725 0.307204764940527 1746080599.02137
 -0.207892533505408 -0.0550973699157837  -0.194443925945731 0.289937003495799 1746080599.0372
-0.507902833048763 0.0819916958587314 -0.292893057105676 0.59200867300189 1746080599.05153
-0.822593173490308 0.0232879170345324 -0.420373090989686 0.924075425374404 1746080599.07151
 -1.15853707541878 0.0512637686200341 -0.590953961145171 1.30156164405924 1746080599.10292
 -1.35951915623254  0.278662122365196 -0.595919319449947 1.51031941982417 1746080599.12135
 -1.41184288473824   0.40547086782115 -0.536078562487303 1.56367745427121 1746080599.13723
 -1.53264858787076  0.433254589667219 -0.635532432060432 1.71482439496603 1746080599.15328
  -1.7496729925279  0.353323225034694 -0.773505617763637 1.94538012296886 1746080599.17138
 -2.2826679605469 0.212501456052047 -1.04515165239387 2.51953802579624 1746080599.20191
  -2.165938987619 0.383896484268041 -1.00794148016281 2.41963101239717 1746080599.21999
   -2.089045907371  0.540438893419258 -0.964167053536106 2.36343079182536 1746080599.2371
-2.05127101209578 0.518610884007523 -1.05237844627066 2.36308493462477 1746080599.25336
-2.31027696027954 0.253559304769492  -1.2209417900245 2.62533251396121 1746080599.27138
 -2.83503183043198 0.0467827934702503  -1.39328027030342 3.15924421673034 1746080599.29893
 -2.5992193265621 0.228429166543834 -1.09840520996824 2.83100953671782 1746080599.31975
 -2.32412980532794  0.405607506294392 -0.821439749211249 2.49817134375532 1746080599.33723
 -2.13356262395185  0.576595151829386 -0.612283133140586 2.29334735148557 1746080599.35383
 -2.13089335656543  0.488755558768355 -0.699471749269841 2.29539739942962 1746080599.37135
 -2.46704109516707  0.310838258943351 -0.939320349627611 2.65805096032612 1746080599.39792
 -2.13313566049576  0.397364916372281 -0.966718274136835 2.37543908454676 1746080599.41955
  -1.6487623495606  0.332626933238844 -0.881635971467089 1.89903658422611 1746080599.43715
 -1.49411020116665    0.2323789103905 -0.661265606313559 1.65034464682919 1746080599.45381
 -1.51978575392091  0.102506665723722 -0.601403499035185 1.63766373929159 1746080599.47126
 -1.70241010417695 -0.150184554420025 -0.611251975734625 1.81504395016473 1746080599.49752
  -1.3037304633143 -0.223119411563983 -0.479749791925834 1.40700222304134 1746080599.51981
-0.606752750944427 -0.284159280005537 -0.272259249041938 0.723201559650403 1746080599.53728
 -0.366185396805054  -0.176242367659488 -0.0828743405742613 0.414754473534784 1746080599.55391
 -0.316509121593229  -0.124565529829941 -0.0445709438618327 0.34304688354548 1746080599.57134
 -0.300115696671838  0.0470211799823583 -0.0477272290140095 0.307503351437202 1746080599.59711
  -0.32262908389059    0.15882497077155 -0.0372592585379984 0.361528905427306 1746080599.61974
 -0.286201873618723   0.179421967934243 -0.0887658744237549 0.349260841639136 1746080599.63719
-0.344316740945346 0.0455947335063345 -0.158812854061892 0.381908916410736 1746080599.65401
-0.439891519778986 0.0352811030583116 -0.177884309227567 0.47580682306567 1746080599.67132
 -0.43384763018115 -0.024479003842253  -0.17321157146712 0.467787597455318 1746080599.69563
 -0.183416007481192 -0.0741904557470768  -0.112640754806034 0.227669925918143 1746080599.71952
    0.16973076056481   -0.161407261152023 -0.00785197588039098 0.234355474780796 1746080599.73711
  0.289085812400925 -0.0651127408462489   0.109408870859704 0.315880637226799 1746080599.75392
  0.161631480732581 0.00676373084564519   0.160186333711187 0.227662348943761 1746080599.77128
 0.134739546330415 0.0435637855779196  0.168331743944084 0.219973009204451 1746080599.79152
 0.216371659554622 0.0964481664845141    0.1980570699503 0.308780742330126 1746080599.81928
0.309353415653921 0.115082603465729 0.160735614626706 0.367123247978963 1746080599.83606
 0.40613344518004 0.185513637097302 0.160055142757129 0.47431775590408 1746080599.85515
0.373698061463205 0.208725034370187 0.257500444522344 0.499522632163346 1746080599.87161
0.446038165793565 0.240777299235695 0.284390552529792 0.581207139959519 1746080599.89036
0.583878052168938 0.248656196257059 0.345189670028878 0.722426046067186 1746080599.91788
0.569313130328302 0.102806389351227 0.255841643283332 0.632567419721853 1746080599.93734
  0.566627204692067 -0.0225453585156672   0.227608504882794 0.611048536355932 1746080599.95493
  0.497968184725364 -0.0739452817459167   0.140100736057358 0.522559502769752 1746080599.97164
   0.47105584662727 -0.0942014369323374   0.122734187515276 0.495813676845331 1746080599.98971
 0.546659894698213 -0.091171676313911  0.118557719036788 0.566749722343607 1746080600.01735
 0.464576032701178 -0.135393376037136 0.0249633830184748 0.484546619972554 1746080600.03722
 0.367701561166356 -0.172993455083926 0.0057172035174156 0.406403567900319 1746080600.05383
 0.290415159224761 -0.119623469744558 0.0414167095450236 0.316806065363035 1746080600.07153
  0.229504072690692 -0.0992160595272468  0.0436189719673507 0.253808117610956 1746080600.08922
  0.292606603906911 0.00714034017267411   0.125609162860886 0.318507882009739 1746080600.11711
  0.230279621646829 -0.0203003854901471   0.089726672097243 0.247975171100861 1746080600.1374
 0.207949075833398 -0.045546389899955 0.0927994695691156 0.232226254599243 1746080600.15406
  0.185141409417743 -0.0327529463860374   0.133567990147811 0.230630667887601 1746080600.17144
  0.154805833313261 -0.0589340459121708    0.11819402954052 0.203489302948377 1746080600.18884
  0.223339473392962 -0.0796583133583861   0.146789039085764 0.278878090315949 1746080600.21578
   0.22587636441236 -0.0801594633635585  0.0684432415923332 0.249259200204416 1746080600.23732
  0.269155016010082 -0.0867668572034802 0.00429152204558012 0.282827380771071 1746080600.25397
  0.237658686606545 -0.0608049546281797 0.00407427931233514 0.245347699355013 1746080600.2714
  0.168390897460065 -0.0362806176678787 0.00129780174699279 0.172259867221426 1746080600.28822
 0.263572536062996 0.0373482295586618  0.113137179010474 0.289249707505978 1746080600.31519
 0.279134827872512 0.0725103521807779 0.0748925444820142 0.297964589378986 1746080600.33723
 0.295171722123896 0.0547234118551375 0.0312349092661959 0.301822161054355 1746080600.35374
 0.313864008372091 0.0847471372397814 0.0255302887635442 0.326105027048164 1746080600.37158
 0.270838244372168 0.0893840338310276 0.0337669214941169 0.287198650946857 1746080600.38819
 0.425272645999244 0.0545285690211581 0.0492503349779397 0.431573613384939 1746080600.41504
 0.337523867918491  0.025062912219229 0.0919397267422518 0.350718440258004 1746080600.43731
 0.254064080213646 -0.108624965373358 0.0918801587191401 0.291187059333727 1746080600.45406
 0.169547940962657 -0.256293838519328 0.0999915026268341 0.323158376876139 1746080600.47151
0.0936309489165326 -0.273070314984684  0.078124368282423 0.299061144986059 1746080600.48821
 0.134077689688694 -0.345074197858518  0.105945714079297 0.385068205947634 1746080600.5136
 0.161619227268779 -0.303370983933374  0.125942808574513 0.366082394478752 1746080600.53735
 0.216734024158045 -0.391653128221398  0.021530659063985 0.448139910466672 1746080600.55397
  0.196236198803886  -0.628343308497254 -0.0177483783756246 0.65851269083385 1746080600.57146
 0.137816095325013 -0.673049750626393 -0.030548474058834 0.687693574360126 1746080600.58786
 0.122920144512566 -0.843928986901156 0.0117291086328257 0.852914455762312 1746080600.6093
 0.117020285005328  -1.00543866511251 0.0890384283704356 1.01613409456264 1746080600.63723
0.144190717498593  -1.1999236492643 0.123607538274242 1.2148607124254 1746080600.65386
 0.181143500252205  -1.71217970798226 0.0583853150128087 1.72272492439129 1746080600.66976
0.0702374769463466  -1.89757276179678 0.0190497256255892 1.89896776737449 1746080600.68536
0.0575487305624003  -1.98580149395377 0.0387328730615655 1.98701274913725 1746080600.70318
 0.157039708026736  -2.45826238359524 0.0807418122635999 2.46459624619208 1746080600.7366
 0.259203713831718  -2.05181507854692 0.0977894893002693 2.07043340053098 1746080600.75505
 0.192110970947023  -1.46059730606432 0.0933217118790795 1.47613009506229 1746080600.76895
0.0644856980363291  -1.43449344340075   0.14286207065535 1.44303132871151 1746080600.78286
-0.0494291853763215   -1.49604036698751   0.107573223821032 1.50071716939147 1746080600.79786
-0.153758618781927  -2.24092492881647 0.0708628349651514 2.24731123585945 1746080600.83699
   0.03905977743009   -2.18189246200314 -0.0409202459607793 2.18262567759305 1746080600.85486
  0.193682351423536   -1.79885744215579 -0.0516926353971697 1.80999256324619 1746080600.86747
  0.181827246381087   -1.85173550938509 -0.0302017614381419 1.8608862648314 1746080600.88178
-0.0198159864657314   -1.79692445886312 -0.0363766748686514 1.7974018600899 1746080600.89404
 -0.199617591209724   -2.33543366203879 -0.0456898780008822 2.34439440740163 1746080600.93579
0.0356010615194054  -1.89560737358532 -0.143743319142541 1.90138288941772 1746080600.95518
 0.321185167817497  -1.32171772701438 -0.128193350257783 1.36621052439963 1746080600.96798
 0.322306787196293  -1.35856193168398 -0.146428113322652 1.40392783990665 1746080600.98038
  0.13262519090894  -1.66693606948617 0.0257650475260797 1.67240220601733 1746080600.99528
-0.0472471431846681   -2.03759837810649   0.013850093694052 2.03819313807515 1746080601.03731
-0.147657756781031  -2.21733969113502 -0.229295145058081 2.23404887649477 1746080601.05693
-0.0019918597903688   -1.71035865702016  -0.254413375774771 1.72917809057434 1746080601.07127
0.0150415114777079  -1.35262284643333 -0.240985102221585 1.3740045965184 1746080601.08426
-0.0750392520615856    -1.1779091086426 -0.0619013912876978 1.18191900729979 1746080601.10179
-0.0921322385720041   -1.26348893585475 -0.0288836003332866 1.26717279910037 1746080601.13615
-0.146725766371451  -1.53482815467185 -0.114513591357745 1.54607220966433 1746080601.15764
0.0128131446167226  -1.51083037279868 -0.270757158660837 1.53495342959064 1746080601.17323
0.0705498555619743  -1.45358835186583 -0.257992009559799 1.47799061424507 1746080601.18741
-0.0239834741169923   -1.34470940378025 -0.0945705666074197 1.3482441098385 1746080601.20404
-0.0378338079817002   -1.36462876065266  -0.117572470270666 1.37020667681644 1746080601.23711
-0.0473893039990446  -0.585220740185822  0.0194620016824247 0.587458790373114 1746080601.25777
0.00894458178843206  -0.349635065327423  -0.127612730474536 0.37230322779832 1746080601.27357
0.0668343292036865 -0.251887711457137 -0.157838149543981 0.304675447311871 1746080601.28923
-0.036403916994717 0.0937781927182698 0.0402463862594686 0.108348355820518 1746080601.30388
-0.0678787469304096   0.324061867008066   0.055426705785538 0.335701858272832 1746080601.33735
-0.161434225363899   1.34235579874207  0.299875155238117 1.38488454690793 1746080601.35776
 0.477350585345651   2.48443945032483 -0.190966503873322 2.53707925955453 1746080601.37328
 0.549684515599056   2.33177837317889 -0.236474746868263 2.40733540542662 1746080601.38545
 0.489370592875543   2.40884515171983 -0.271906862170945 2.47304506304093 1746080601.40143
0.490192403953196  3.05090993775236 -0.35444306131954 3.1103006164818 1746080601.43606
  0.142334968165824    3.23120755439391 -0.0774759388892499 3.2352687714998 1746080601.46316
0.0636085355449243   2.08632486003523  0.127108886957644 2.09116095424021 1746080601.47631
0.0301710341720692   1.69190329707634  0.143689395351738 1.6982619645677 1746080601.4892
-0.0464416312636326    1.62179462551897  0.0803098095972973 1.62444584335527 1746080601.50196
  0.019586384006659    2.26760450851238 -0.0390059502640578 2.26802453637965 1746080601.53581
0.0418611362401265   2.77733725130106 0.0275476603705373 2.77778930730603 1746080601.56426
0.0216267042405929   2.01909592730918   0.21048408714952 2.03015261223288 1746080601.57818
0.0753637017436484   1.74812215457149  0.278159613273802 1.77171767652208 1746080601.59201
-0.0248362813522171    1.78095792747047   0.176493779157965 1.78985419360706 1746080601.60719
-0.0625951343208268    2.56217185360586   0.122501013232408 2.56586228322833 1746080601.63738
-0.137149283546406   2.61249738577761 0.0485349302724027 2.61654508008723 1746080601.66371
-0.135486544061542    1.8930260403786 0.0760636802502343 1.89939197550859 1746080601.6794
-0.127693496093087   1.63855590268151 0.0599345480947515 1.64461643710995 1746080601.69352
 -0.244572930148173    1.80205826577874 -0.0329142239211535 1.81887692204808 1746080601.70955
-0.162649160673027   2.70005285508235  0.188381314216549 2.71149915899894 1746080601.7363
-0.0997962100462787    2.87183634790848 0.00714722984897161 2.87357867050868 1746080601.76249
 0.119760463947107   2.55324656448465 -0.118171307016035 2.5587838997421 1746080601.77952
  0.071709898329168    2.39666985687539 -0.0753318875576471 2.3989255106519 1746080601.796
 -0.104861461939751    2.54791347229945 -0.0268413147871465 2.55021164704122 1746080601.81326
-0.113726913545682   2.92758043562918   0.20268419063849 2.93679108876987 1746080601.83597
-0.0705666476308655    3.07658511697929   0.189432166446328 3.08321912608574 1746080601.86302
  0.17911437152267   2.47820316448375 0.0806991822900669 2.48597772326413 1746080601.87902
 0.170189915917819   2.34706856023851 0.0279505102103076 2.35339683541922 1746080601.89616
0.0570040502217082   2.37666745656935 0.0206678467554266 2.37744081330051 1746080601.91336
0.0159756926702303   2.36991371941422 0.0550964431762348 2.37060791323127 1746080601.93573
 0.055806353804271   2.27362245872915 0.0982493086025407 2.27642842202503 1746080601.96212
0.157791673372977  1.71499585354711 0.139903925429779 1.7279126419528 1746080601.97962
 0.163886239740396    1.6868645273032 0.0757804798485853 1.69650031363869 1746080601.99632
0.0147190577483786   1.91081708312361  0.081022360609331 1.91259070340121 1746080602.0135
0.00193832764594277    1.96259859852639  0.0107318047517971 1.96262889708805 1746080602.03532
 -0.162943505546431    1.78784007931034 -0.0866692483674265 1.79734089526744 1746080602.06196
-0.142480142036477  0.873841376483292 -0.329258688478524 0.944621948753863 1746080602.08193
-0.219777037101558   0.43277287716216 -0.266294666196028 0.553630886501835 1746080602.09929
-0.253427800456302  0.265832734951348 -0.253076274527016 0.446027234307847 1746080602.11585
-0.264281435558957   0.20430274991182 -0.201076898611458 0.389892562070421 1746080602.13501
-0.253581587206633  0.135801872957272 -0.138327729526123 0.3191869841093 1746080602.16167
 -0.123297270337688  -0.184493679944646 -0.0492668329778968 0.227304543825931 1746080602.18208
-0.0684256614601453  -0.361573259779101  0.0857976663934052 0.377860467490445 1746080602.19938
0.0471334584248393 -0.382801166641765  0.118575607669376 0.403507708500773 1746080602.21568
 0.100421559761731 -0.395741774012561    0.1428547347894 0.432554640034455 1746080602.23408
 0.074178645699812 -0.481030682208798  0.130149355867772 0.50381727197161 1746080602.26409
0.0700405425446451  -1.12750545486164 0.0469677758255486 1.13065476619024 1746080602.28279
  0.12930671489844  -1.35879998122195 0.0168203606239596 1.36504232169486 1746080602.29919
 0.166935062561111  -1.33502992493812 0.0155358407533883 1.34551610095921 1746080602.31582
0.179331918265875 -1.44447101312034 0.171321228826755 1.46560820415981 1746080602.3366
0.197764036408549 -1.78932208322221 0.141579413824514 1.80577652604694 1746080602.36422
 0.141720679788102  -2.24290882802535 0.0902291614280191 2.24919231358407 1746080602.38268
0.0929993688920539  -2.26656349176224 0.0730689199143791 2.26964711174694 1746080602.39996
0.0751321513820503  -2.07665059328243 0.0820767956866605 2.07962956488451 1746080602.41757
0.130748475474047 -2.12664221845417 0.100874716879054 2.1330443027879 1746080602.43746
 0.287049249371218   -2.7142010840232 -0.120753095012222 2.73200770607118 1746080602.46574
  0.0986708375688887    -2.57449912442859 -0.00927262793322668 2.57640595743352 1746080602.48519
0.00693635414118245   -1.97891683312152   0.122574169799557 1.9827214561109 1746080602.50232
0.0304809588817175   -1.6448364764442   0.13110711228801 1.65033487449918 1746080602.51968
0.135847970619929 -1.57714344108542  0.11206436692455 1.58694502967637 1746080602.53745
 0.259901717105731  -2.24386670512453 -0.118473665728716 2.26197318781459 1746080602.56982
0.0966921496792345  -2.09656477999079 0.0250719490574483 2.09894303189414 1746080602.5875
0.100303339349579 -1.67116565263255  0.18201098880489 1.68403782572399 1746080602.60364
0.0844098024200881  -1.38110244958532 0.0793022353756902 1.38595015622162 1746080602.61954
 0.0540690242839717   -1.42526686070886 -0.0650742899038178 1.42777580411926 1746080602.63655
-0.231857253898721  -2.23740048171305  -0.23014883442537 2.2611252039068 1746080602.67374
 -0.149386691687542   -1.95095481781447 -0.0345567931492287 1.95697093917094 1746080602.69177
0.117918834194193 -1.21407900817169 0.141307333983369 1.22794969448197 1746080602.70582
 0.228619469994515 -0.950914420018722  0.142517031900562 0.988340123966371 1746080602.71983
 0.270295816719687  -1.11779745045303 -0.127755157805524 1.15708787441636 1746080602.73752
0.0922101062263023  -1.87622861384226 -0.182401593109982 1.88732796732836 1746080602.77765
 0.099572664420287  -1.51235493517902 -0.141999797472044 1.5222667663528 1746080602.79391
 0.132310523291712 -0.293752141456865  0.041027703697232 0.324776334813497 1746080602.80771
0.260305445596608 0.552905014900069 0.226400549620521 0.651705523513012 1746080602.82196
0.343679074182148  1.03899148972071 0.130436137072504 1.10210353760305 1746080602.83747
 0.637072450701527   1.54983102086278 0.0326209259635266 1.67597781175113 1746080602.87738
  0.322874552967858   0.836008726830737 -0.0664436936804994 0.898650840271823 1746080602.89512
0.160742343426554 0.218215697578909 0.135119645707498 0.302842385237321 1746080602.90812
-0.0635515521452804  -0.241855000686366  0.0790774974677673 0.262270645980142 1746080602.92227
 -0.132581701515323  -0.291850409215882 -0.0172463006776975 0.321017139454019 1746080602.93651
 -0.176906141859275  -0.389010217822057 -0.0692538951895182 0.43292127990712 1746080602.97534
 0.0821944948903244  -0.232947535779669 -0.0419276397501571 0.250556214034126 1746080602.99524
 0.304670214770384  0.146306090470309 0.0594417570841567 0.343165753481011 1746080603.00858
0.322107428880372  0.32864274703996 0.204306043328139 0.503488043812656 1746080603.02233
0.310484644388051  0.37973566111627 0.226124288803051 0.540122283108993 1746080603.03611
0.422483737140237 0.426019415936468 0.373824778917251 0.706915848057859 1746080603.07183
 0.34763814100632 0.294762776742928 0.529501650729355 0.698648244655809 1746080603.09441
0.401971997636965 0.270127780312896 0.626221866427949 0.791646594493735 1746080603.10909
0.396968179618235 0.298976698498639 0.717898283027721 0.873125848116244 1746080603.12225
